# .PCD v0.7 - Point Cloud Data file format
VERSION 0.7
FIELDS x y z rgb
TYPE F F F F
POINTS 1380
DATA ascii
-0.143164 0.66364 0.430115 46003 
-0.143074 0.662747 0.430111 46003 
-0.142253 0.662479 0.42987 46003 
-0.141463 0.662227 0.429573 46003 
-0.140465 0.662052 0.42941 46003 
-0.139596 0.661841 0.429075 46003 
-0.138845 0.661571 0.428821 46003 
-0.138193 0.661118 0.428715 46003 
-0.137945 0.660361 0.428685 46003 
-0.137919 0.659416 0.428731 46003 
-0.137706 0.658616 0.428804 46003 
-0.137626 0.657736 0.428777 46003 
-0.137537 0.656817 0.428826 46003 
-0.137232 0.656097 0.428786 46003 
-0.137125 0.655276 0.428816 46003 
-0.136566 0.654715 0.428679 46003 
-0.136029 0.654151 0.428561 46003 
-0.135395 0.653709 0.428415 46003 
-0.134852 0.653237 0.428303 46003 
-0.134275 0.652802 0.428129 46003 
-0.133449 0.652519 0.4279 46003 
-0.13262 0.652236 0.427661 46003 
-0.131959 0.651933 0.427378 46003 
-0.13115 0.651597 0.427257 46003 
-0.130467 0.651281 0.427012 46003 
-0.129544 0.651144 0.426684 46003 
-0.128721 0.650827 0.426492 46003 
-0.12776 0.650655 0.426212 46003 
-0.126732 0.650494 0.425908 46003 
-0.125707 0.650327 0.425564 46003 
-0.124499 0.650325 0.425092 46003 
-0.123686 0.649983 0.424971 46003 
-0.123268 0.649341 0.424933 46003 
-0.123057 0.648552 0.424846 46003 
-0.123031 0.647625 0.424976 46003 
-0.123009 0.646686 0.425023 46003 
-0.123194 0.645616 0.42512 46003 
-0.123201 0.644686 0.425242 46003 
-0.123064 0.643892 0.425306 46003 
-0.12283 0.643118 0.425265 46003 
-0.122413 0.642478 0.425227 46003 
-0.121816 0.641994 0.425043 46003 
-0.121201 0.641502 0.424963 46003 
-0.120585 0.641011 0.424784 46003 
-0.119948 0.640531 0.424566 46003 
-0.119223 0.640173 0.424406 46003 
-0.118568 0.639685 0.424253 46003 
-0.11799 0.63918 0.424085 46003 
-0.117184 0.638826 0.423905 46003 
-0.116297 0.638603 0.423624 46003 
-0.115102 0.63853 0.423304 46003 
-0.113962 0.638441 0.422923 46003 
-0.112575 0.63848 0.42245 46003 
-0.111394 0.638409 0.422116 46003 
-0.110117 0.638447 0.421731 46003 
-0.108905 0.638307 0.421277 46003 
-0.107212 0.638566 0.420665 46003 
-0.105953 0.638455 0.42033 46003 
-0.104979 0.638158 0.419986 46003 
-0.103985 0.637902 0.419725 46003 
-0.102962 0.637688 0.419561 46003 
-0.102158 0.637316 0.419401 46003 
-0.101619 0.63679 0.419269 46003 
-0.0976478 0.633825 0.418318 46003 
-0.0975111 0.633082 0.418405 46003 
-0.0972885 0.632288 0.418409 46003 
-0.0969386 0.631632 0.418323 46003 
-0.0967812 0.630817 0.418246 46003 
-0.211175 0.684008 0.455173 46003 
-0.210829 0.683462 0.454996 46003 
-0.21043 0.68285 0.45496 46003 
-0.210032 0.682239 0.454924 46003 
-0.209469 0.681892 0.454695 46003 
-0.208943 0.68153 0.454454 46003 
-0.20811 0.681394 0.454216 46003 
-0.20743 0.681203 0.453899 46003 
-0.206438 0.681162 0.453682 46003 
-0.205781 0.680847 0.453505 46003 
-0.205122 0.680662 0.453156 46003 
-0.204536 0.680217 0.453079 46003 
-0.20368 0.680025 0.452922 46003 
-0.202961 0.679745 0.452747 46003 
-0.202607 0.679097 0.452703 46003 
-0.202392 0.678316 0.452708 46003 
-0.201869 0.677822 0.452619 46003 
-0.201466 0.677185 0.452591 46003 
-0.201152 0.676521 0.452532 46003 
-0.200938 0.675742 0.452537 46003 
-0.200163 0.675532 0.452317 46003 
-0.199763 0.674919 0.452281 46003 
-0.199272 0.674613 0.451921 46003 
-0.198499 0.674332 0.451803 46003 
-0.197628 0.674313 0.451438 46003 
-0.196947 0.674128 0.451095 46003 
-0.195902 0.674442 0.450473 46003 
-0.194939 0.674813 0.449688 46003 
-0.193808 0.675283 0.448937 46003 
-0.192707 0.67543 0.448559 46003 
-0.191609 0.675521 0.448246 46003 
-0.190812 0.675453 0.447858 46003 
-0.190171 0.67511 0.447685 46003 
-0.190051 0.673925 0.448085 46003 
-0.189577 0.673461 0.447907 46003 
-0.189515 0.672521 0.447975 46003 
-0.189078 0.671988 0.447855 46003 
-0.188783 0.671288 0.447816 46003 
-0.188336 0.670712 0.447761 46003 
-0.187745 0.670258 0.447683 46003 
-0.186935 0.670192 0.447328 46003 
-0.186068 0.670187 0.446951 46003 
-0.185057 0.670454 0.446365 46003 
-0.184262 0.670302 0.446104 46003 
-0.182809 0.671054 0.445321 46003 
-0.181959 0.670944 0.445045 46003 
-0.181321 0.670706 0.444755 46003 
-0.180623 0.670512 0.444457 46003 
-0.180525 0.66971 0.444394 46003 
-0.18032 0.668932 0.44438 46003 
-0.179841 0.668469 0.444222 46003 
-0.179313 0.668073 0.444028 46003 
-0.178491 0.667873 0.44382 46003 
-0.177839 0.667576 0.443607 46003 
-0.177172 0.667288 0.443405 46003 
-0.176387 0.66699 0.443286 46003 
-0.175384 0.666923 0.443073 46003 
-0.174906 0.666842 0.442555 46003 
-0.173868 0.666849 0.442289 46003 
-0.173137 0.666943 0.441764 46003 
-0.172141 0.667185 0.441248 46003 
-0.17113 0.667356 0.440828 46003 
-0.169909 0.668074 0.440019 46003 
-0.168723 0.668413 0.439563 46003 
-0.167673 0.668772 0.439033 46003 
-0.166899 0.669147 0.438375 46003 
-0.165728 0.669158 0.438171 46003 
-0.164762 0.66969 0.437505 46003 
-0.163453 0.670112 0.437017 46003 
-0.162464 0.670591 0.436376 46003 
-0.160032 0.67242 0.435165 46003 
-0.159061 0.672468 0.434877 46003 
-0.157883 0.672469 0.434673 46003 
-0.157279 0.671994 0.434595 46003 
-0.152634 0.677382 0.430868 46003 
-0.151823 0.677097 0.430696 46003 
-0.151023 0.676774 0.430575 46003 
-0.150845 0.675924 0.430695 46003 
-0.150721 0.675081 0.430796 46003 
-0.15069 0.674129 0.430842 46003 
-0.150628 0.673073 0.430838 46003 
-0.150473 0.672095 0.430897 46003 
-0.150542 0.671125 0.43097 46003 
-0.150079 0.670439 0.430903 46003 
-0.149543 0.669881 0.430801 46003 
-0.148936 0.669402 0.430722 46003 
-0.148448 0.668936 0.43058 46003 
-0.147703 0.668692 0.430303 46003 
-0.146804 0.668426 0.429963 46003 
-0.146195 0.667944 0.429884 46003 
-0.14562 0.667558 0.429638 46003 
-0.145204 0.666921 0.429601 46003 
-0.14483 0.666291 0.429547 46003 
-0.144676 0.665404 0.429569 46003 
-0.144438 0.664576 0.429506 46003 
-0.144245 0.663802 0.429522 46003 
-0.144025 0.662924 0.429719 46003 
-0.144505 0.661486 0.430053 46003 
-0.143703 0.661159 0.429932 46003 
-0.142942 0.660898 0.429681 46003 
-0.141962 0.660816 0.429314 46003 
-0.14098 0.660778 0.428844 46003 
-0.139947 0.660667 0.42857 46003 
-0.139118 0.660416 0.428263 46003 
-0.138809 0.659685 0.428238 46003 
-0.138621 0.658919 0.428192 46003 
-0.138441 0.658097 0.428293 46003 
-0.138351 0.657207 0.428277 46003 
-0.138126 0.656453 0.428232 46003 
-0.137959 0.655643 0.428306 46003 
-0.1376 0.65496 0.428143 46003 
-0.137298 0.654277 0.42819 46003 
-0.136688 0.653792 0.428111 46003 
-0.13613 0.653396 0.427899 46003 
-0.135452 0.653006 0.427633 46003 
-0.134842 0.65252 0.427554 46003 
-0.133943 0.652293 0.42725 46003 
-0.133196 0.651962 0.427071 46003 
-0.132213 0.65189 0.426637 46003 
-0.131405 0.651554 0.426515 46003 
-0.130709 0.651233 0.426341 46003 
-0.129629 0.651133 0.425925 46003 
-0.128806 0.650816 0.425732 46003 
-0.127996 0.650477 0.425611 46003 
-0.127014 0.650333 0.425189 46003 
-0.126078 0.650146 0.424984 46003 
-0.125012 0.649996 0.424517 46003 
-0.124444 0.649513 0.424444 46003 
-0.124041 0.64887 0.424337 46003 
-0.124065 0.647926 0.424475 46003 
-0.124057 0.64699 0.424569 46003 
-0.124099 0.646046 0.424711 46003 
-0.124271 0.644989 0.424781 46003 
-0.124116 0.644198 0.42484 46003 
-0.123856 0.643421 0.424769 46003 
-0.123637 0.642633 0.424773 46003 
-0.123229 0.642012 0.424656 46003 
-0.122332 0.641683 0.42445 46003 
-0.121765 0.641183 0.424359 46003 
-0.120868 0.640852 0.424066 46003 
-0.120353 0.640351 0.423966 46003 
-0.119308 0.640162 0.423644 46003 
-0.118707 0.639663 0.423552 46003 
-0.117992 0.639303 0.423246 46003 
-0.117266 0.638941 0.423053 46003 
-0.116183 0.638739 0.422819 46003 
-0.115082 0.638645 0.422424 46003 
-0.113953 0.638591 0.422172 46003 
-0.112684 0.638621 0.421648 46003 
-0.111615 0.638404 0.421383 46003 
-0.110283 0.638444 0.420943 46003 
-0.109308 0.638132 0.420496 46003 
-0.107717 0.638316 0.420089 46003 
-0.106717 0.638019 0.419717 46003 
-0.105793 0.637805 0.419506 46003 
-0.104743 0.637533 0.41923 46003 
-0.103749 0.637262 0.418945 46003 
-0.10281 0.637026 0.418728 46003 
-0.101987 0.636666 0.418605 46003 
-0.100672 0.636585 0.418062 46003 
-0.0987577 0.636853 0.417567 46003 
-0.0971238 0.636075 0.417234 46003 
-0.0973299 0.635001 0.417332 46003 
-0.0976189 0.63401 0.417586 46003 
-0.0973959 0.633215 0.41759 46003 
-0.103877 0.628448 0.418775 46003 
-0.103496 0.627746 0.418627 46003 
-0.103356 0.626968 0.418533 46003 
-0.103137 0.626178 0.418537 46003 
-0.102802 0.625535 0.418381 46003 
-0.211302 0.684063 0.454324 46003 
-0.210904 0.683451 0.454288 46003 
-0.210491 0.682916 0.454159 46003 
-0.209864 0.682614 0.453933 46003 
-0.20928 0.682171 0.453855 46003 
-0.208895 0.681802 0.453488 46003 
-0.208126 0.681527 0.453369 46003 
-0.207141 0.681529 0.453089 46003 
-0.206695 0.681108 0.452854 46003 
-0.20611 0.680663 0.452777 46003 
-0.20534 0.680548 0.45244 46003 
-0.204754 0.680102 0.452363 46003 
-0.204022 0.679825 0.452201 46003 
-0.203273 0.679523 0.452078 46003 
-0.202762 0.679026 0.451983 46003 
-0.202495 0.67832 0.451932 46003 
-0.20209 0.677659 0.451945 46003 
-0.201871 0.676903 0.451916 46003 
-0.20149 0.676232 0.451916 46003 
-0.201342 0.675422 0.451888 46003 
-0.200942 0.67481 0.451852 46003 
-0.200335 0.674275 0.45189 46003 
-0.199886 0.673902 0.451577 46003 
-0.198991 0.673917 0.451202 46003 
-0.198217 0.673635 0.451082 46003 
-0.197337 0.673752 0.450546 46003 
-0.196356 0.674091 0.449827 46003 
-0.195407 0.67417 0.449402 46003 
-0.194075 0.674827 0.448597 46003 
-0.192997 0.675104 0.448028 46003 
-0.19206 0.675047 0.447756 46003 
-0.191166 0.674904 0.447545 46003 
-0.190723 0.674367 0.44743 46003 
-0.190455 0.673608 0.447441 46003 
-0.190239 0.672826 0.447447 46003 
-0.190157 0.671901 0.447512 46003 
-0.189675 0.671172 0.447634 46003 
-0.18946 0.670391 0.447639 46003 
-0.188932 0.670101 0.447321 46003 
-0.188284 0.669694 0.447217 46003 
-0.187549 0.669292 0.447175 46003 
-0.186739 0.669226 0.446819 46003 
-0.185583 0.669631 0.446191 46003 
-0.184533 0.670127 0.445412 46003 
-0.183188 0.670761 0.444678 46003 
-0.182231 0.67077 0.444351 46003 
-0.18168 0.670546 0.443989 46003 
-0.181324 0.67008 0.443754 46003 
-0.180828 0.669522 0.443699 46003 
-0.180613 0.668741 0.443704 46003 
-0.180071 0.668428 0.44342 46003 
-0.179666 0.667808 0.443384 46003 
-0.179072 0.66735 0.443306 46003 
-0.178567 0.667004 0.443055 46003 
-0.177513 0.667051 0.442743 46003 
-0.176718 0.666791 0.442588 46003 
-0.175923 0.666659 0.442316 46003 
-0.17506 0.66679 0.441824 46003 
-0.174326 0.666668 0.441511 46003 
-0.173405 0.666776 0.441077 46003 
-0.172342 0.667213 0.440425 46003 
-0.17127 0.667525 0.439918 46003 
-0.170082 0.66813 0.439218 46003 
-0.169129 0.668176 0.43889 46003 
-0.167952 0.668624 0.438316 46003 
-0.167094 0.668923 0.437784 46003 
-0.1661 0.669067 0.437402 46003 
-0.164888 0.669538 0.436885 46003 
-0.163832 0.670026 0.436255 46003 
-0.162946 0.670482 0.435605 46003 
-0.161074 0.671478 0.434949 46003 
-0.159911 0.671801 0.434406 46003 
-0.158753 0.671864 0.434128 46003 
-0.158374 0.671265 0.434141 46003 
-0.153104 0.677054 0.430195 46003 
-0.152528 0.676654 0.43019 46003 
-0.151728 0.676332 0.430069 46003 
-0.151222 0.675708 0.430077 46003 
-0.150806 0.67507 0.430039 46003 
-0.150775 0.674118 0.430086 46003 
-0.151018 0.673019 0.430221 46003 
-0.150712 0.672194 0.430208 46003 
-0.150242 0.671428 0.430131 46003 
-0.150019 0.670635 0.430136 46003 
-0.149386 0.670136 0.429995 46003 
-0.148807 0.669701 0.429825 46003 
-0.148338 0.669225 0.429686 46003 
-0.147689 0.668821 0.429503 46003 
-0.147133 0.66836 0.429391 46003 
-0.146548 0.667929 0.429205 46003 
-0.146129 0.667395 0.429037 46003 
-0.145515 0.666838 0.428912 46003 
-0.145293 0.666046 0.428917 46003 
-0.145148 0.665083 0.428896 46003 
-0.145084 0.664141 0.429022 46003 
-0.144912 0.663241 0.429085 46003 
-0.144691 0.66245 0.42909 46003 
-0.145658 0.660341 0.42997 46003 
-0.144907 0.660124 0.429636 46003 
-0.144193 0.659888 0.429331 46003 
-0.143196 0.659715 0.429167 46003 
-0.142225 0.659693 0.428699 46003 
-0.140817 0.659967 0.428163 46003 
-0.140129 0.65966 0.427996 46003 
-0.139688 0.65909 0.427841 46003 
-0.139391 0.65834 0.427795 46003 
-0.139111 0.657628 0.427662 46003 
-0.138936 0.656842 0.427678 46003 
-0.138653 0.656116 0.427629 46003 
-0.138567 0.655269 0.427731 46003 
-0.138117 0.654684 0.427616 46003 
-0.137662 0.654099 0.427514 46003 
-0.137051 0.653615 0.427435 46003 
-0.136495 0.65321 0.42722 46003 
-0.13584 0.652785 0.427023 46003 
-0.135122 0.652358 0.426839 46003 
-0.134479 0.65208 0.426606 46003 
-0.133726 0.651769 0.426405 46003 
-0.132591 0.651677 0.426035 46003 
-0.131782 0.65134 0.425914 46003 
-0.130793 0.651222 0.425583 46003 
-0.129994 0.650926 0.42533 46003 
-0.129191 0.650619 0.42512 46003 
-0.128383 0.650303 0.42491 46003 
-0.127492 0.65016 0.424563 46003 
-0.126743 0.649819 0.424418 46003 
-0.125646 0.649656 0.424076 46003 
-0.125349 0.648999 0.424098 46003 
-0.124823 0.648397 0.423832 46003 
-0.124757 0.647471 0.423888 46003 
-0.124798 0.646526 0.42403 46003 
-0.124845 0.645595 0.424134 46003 
-0.125013 0.644529 0.424202 46003 
-0.124794 0.643741 0.424207 46003 
-0.124605 0.642965 0.424199 46003 
-0.124117 0.642325 0.424098 46003 
-0.123817 0.641698 0.424053 46003 
-0.122897 0.641361 0.423859 46003 
-0.122048 0.641024 0.423641 46003 
-0.121281 0.640684 0.42343 46003 
-0.12053 0.64035 0.423174 46003 
-0.119525 0.64015 0.422918 46003 
-0.118994 0.63965 0.422759 46003 
-0.118093 0.639429 0.422385 46003 
-0.117277 0.639081 0.422263 46003 
-0.116351 0.638881 0.42203 46003 
-0.115083 0.638783 0.421617 46003 
-0.113964 0.638726 0.421338 46003 
-0.112645 0.638781 0.420893 46003 
-0.111607 0.638553 0.420631 46003 
-0.110474 0.638447 0.420232 46003 
-0.109459 0.638167 0.419836 46003 
-0.108253 0.638074 0.419541 46003 
-0.107205 0.637804 0.419246 46003 
-0.106279 0.637503 0.418821 46003 
-0.105257 0.637291 0.418656 46003 
-0.104524 0.636834 0.41831 46003 
-0.103301 0.636765 0.418102 46003 
-0.10255 0.636384 0.417925 46003 
-0.101376 0.636207 0.417515 46003 
-0.0997329 0.636357 0.417124 46003 
-0.0978773 0.635675 0.416672 46003 
-0.0979279 0.634795 0.416808 46003 
-0.0977047 0.633999 0.416813 46003 
-0.0974817 0.633204 0.416817 46003 
-0.104163 0.628293 0.418051 46003 
-0.10382 0.627617 0.417884 46003 
-0.103643 0.626814 0.417808 46003 
-0.103308 0.62617 0.417652 46003 
-0.102887 0.625524 0.417614 46003 
-0.2112 0.684221 0.453556 46003 
-0.210802 0.683608 0.45352 46003 
-0.210696 0.68281 0.453445 46003 
-0.21044 0.682223 0.453238 46003 
-0.21001 0.681781 0.453011 46003 
-0.209099 0.681695 0.452773 46003 
-0.208579 0.681208 0.452698 46003 
-0.207661 0.681108 0.452489 46003 
-0.206592 0.681265 0.452085 46003 
-0.205995 0.680914 0.451895 46003 
-0.205237 0.680704 0.45167 46003 
-0.204651 0.680258 0.451593 46003 
-0.204385 0.679539 0.451566 46003 
-0.203846 0.679058 0.45148 46003 
-0.203374 0.678529 0.451392 46003 
-0.20285 0.678034 0.451311 46003 
-0.202195 0.677561 0.451294 46003 
-0.202166 0.676614 0.451342 46003 
-0.201882 0.675936 0.451266 46003 
-0.201423 0.675411 0.451161 46003 
-0.201262 0.674506 0.451264 46003 
-0.200831 0.673922 0.451203 46003 
-0.200245 0.673476 0.451126 46003 
-0.199382 0.673444 0.450772 46003 
-0.198626 0.673281 0.450482 46003 
-0.197749 0.673241 0.450144 46003 
-0.19662 0.673664 0.449455 46003 
-0.195676 0.673993 0.448713 46003 
-0.194467 0.67445 0.448025 46003 
-0.193308 0.674706 0.44756 46003 
-0.192382 0.674716 0.4472 46003 
-0.191604 0.674428 0.447081 46003 
-0.19118 0.674027 0.44678 46003 
-0.190912 0.673268 0.446792 46003 
-0.190862 0.672125 0.447078 46003 
-0.190542 0.671377 0.447109 46003 
-0.190132 0.670832 0.446985 46003 
-0.189857 0.669983 0.447101 46003 
-0.189498 0.669315 0.447083 46003 
-0.188868 0.668958 0.446908 46003 
-0.188008 0.668954 0.446526 46003 
-0.187198 0.668888 0.44617 46003 
-0.18613 0.669008 0.445799 46003 
-0.184864 0.66969 0.444962 46003 
-0.183634 0.670338 0.444129 46003 
-0.182873 0.670327 0.443693 46003 
-0.182277 0.670066 0.443407 46003 
-0.181701 0.669776 0.443131 46003 
-0.181192 0.669287 0.443023 46003 
-0.180781 0.66866 0.442991 46003 
-0.180143 0.668357 0.442757 46003 
-0.179778 0.6678 0.442633 46003 
-0.179319 0.667307 0.442504 46003 
-0.178667 0.667035 0.442269 46003 
-0.178073 0.666576 0.442191 46003 
-0.177062 0.666707 0.441782 46003 
-0.176106 0.666774 0.441405 46003 
-0.175372 0.666652 0.441092 46003 
-0.174219 0.666817 0.440731 46003 
-0.173298 0.666925 0.440295 46003 
-0.172235 0.667362 0.439643 46003 
-0.171257 0.66741 0.439318 46003 
-0.170271 0.667786 0.438728 46003 
-0.169213 0.668164 0.438147 46003 
-0.168363 0.668156 0.437844 46003 
-0.16744 0.668748 0.437079 46003 
-0.166184 0.669056 0.436658 46003 
-0.165416 0.66957 0.435971 46003 
-0.164548 0.669536 0.435726 46003 
-0.163397 0.670112 0.435051 46003 
-0.161731 0.670991 0.434326 46003 
-0.160668 0.67116 0.433908 46003 
-0.159636 0.671254 0.433595 46003 
-0.159033 0.67078 0.433517 46003 
-0.153851 0.676675 0.429761 46003 
-0.153052 0.676353 0.429641 46003 
-0.152544 0.675826 0.429658 46003 
-0.151729 0.675439 0.429482 46003 
-0.151313 0.674801 0.429444 46003 
-0.15109 0.674007 0.429449 46003 
-0.151073 0.673091 0.429464 46003 
-0.151004 0.672176 0.429541 46003 
-0.150527 0.671547 0.429389 46003 
-0.150287 0.670796 0.429338 46003 
-0.149907 0.670231 0.429221 46003 
-0.149328 0.669687 0.429085 46003 
-0.14872 0.669206 0.429005 46003 
-0.148013 0.668846 0.428772 46003 
-0.14727 0.668458 0.428591 46003 
-0.146815 0.667995 0.428449 46003 
-0.146437 0.667287 0.428386 46003 
-0.145814 0.666751 0.428236 46003 
-0.145592 0.665958 0.428241 46003 
-0.150208 0.660146 0.430745 46003 
-0.14999 0.659359 0.43075 46003 
-0.149772 0.658572 0.430756 46003 
-0.149307 0.658058 0.430577 46003 
-0.147041 0.659044 0.429865 46003 
-0.14624 0.65872 0.429743 46003 
-0.145684 0.658595 0.429224 46003 
-0.144517 0.65876 0.42869 46003 
-0.14352 0.658587 0.428526 46003 
-0.141631 0.65944 0.427638 46003 
-0.140813 0.659172 0.42739 46003 
-0.140205 0.658754 0.427197 46003 
-0.139985 0.657964 0.427202 46003 
-0.13985 0.657209 0.427196 46003 
-0.13963 0.65642 0.427201 46003 
-0.139406 0.655666 0.427157 46003 
-0.138968 0.655069 0.427072 46003 
-0.138481 0.654506 0.426941 46003 
-0.138066 0.65387 0.426904 46003 
-0.137378 0.65348 0.426678 46003 
-0.136776 0.653047 0.426506 46003 
-0.136165 0.652563 0.426427 46003 
-0.135621 0.65215 0.426204 46003 
-0.13488 0.651881 0.425946 46003 
-0.134007 0.651607 0.42569 46003 
-0.133002 0.651476 0.425402 46003 
-0.132307 0.651156 0.425227 46003 
-0.131194 0.651018 0.424968 46003 
-0.130311 0.650762 0.424638 46003 
-0.129687 0.65043 0.424443 46003 
-0.12893 0.650117 0.424286 46003 
-0.127896 0.649962 0.423992 46003 
-0.127025 0.649658 0.4237 46003 
-0.126246 0.64933 0.42346 46003 
-0.125828 0.648689 0.423422 46003 
-0.125712 0.647908 0.423501 46003 
-0.125678 0.646983 0.423517 46003 
-0.125657 0.64605 0.423593 46003 
-0.125642 0.645133 0.4236 46003 
-0.125584 0.644219 0.423576 46003 
-0.125365 0.643431 0.423581 46003 
-0.125138 0.642649 0.423576 46003 
-0.124763 0.642029 0.423506 46003 
-0.1241 0.641539 0.423336 46003 
-0.123287 0.641196 0.423214 46003 
-0.122518 0.640868 0.423061 46003 
-0.121681 0.640528 0.422726 46003 
-0.120694 0.640329 0.422372 46003 
-0.119681 0.640131 0.422207 46003 
-0.119005 0.63979 0.421936 46003 
-0.117979 0.639565 0.421581 46003 
-0.117252 0.639219 0.42139 46003 
-0.116237 0.639017 0.421225 46003 
-0.115057 0.638929 0.420807 46003 
-0.113934 0.638855 0.420455 46003 
-0.112531 0.638917 0.420085 46003 
-0.111575 0.638682 0.419753 46003 
-0.11056 0.638436 0.419466 46003 
-0.109624 0.638206 0.419141 46003 
-0.10863 0.637966 0.41889 46003 
-0.107642 0.637708 0.418571 46003 
-0.106648 0.637402 0.418165 46003 
-0.105914 0.637049 0.418026 46003 
-0.105009 0.636637 0.417833 46003 
-0.104082 0.636336 0.417442 46003 
-0.103329 0.635969 0.417295 46003 
-0.102355 0.635709 0.417032 46003 
-0.101096 0.635512 0.416644 46003 
-0.10151 0.634349 0.416851 46003 
-0.0988393 0.635147 0.416159 46003 
-0.0986162 0.634352 0.416163 46003 
-0.105026 0.629611 0.417486 46003 
-0.104807 0.628821 0.41749 46003 
-0.104449 0.628139 0.417326 46003 
-0.104106 0.627463 0.41716 46003 
-0.103929 0.62666 0.417084 46003 
-0.103595 0.626016 0.416927 46003 
-0.103174 0.62537 0.416889 46003 
-0.102956 0.624582 0.416894 46003 
-0.21192 0.683744 0.452826 46003 
-0.211521 0.683131 0.45279 46003 
-0.211122 0.682519 0.452754 46003 
-0.210723 0.681907 0.452718 46003 
-0.210293 0.681465 0.452492 46003 
-0.209507 0.681327 0.452207 46003 
-0.208661 0.681197 0.45197 46003 
-0.207931 0.68097 0.451751 46003 
-0.206947 0.68097 0.45147 46003 
-0.206349 0.680619 0.45128 46003 
-0.20554 0.680493 0.450992 46003 
-0.205137 0.679867 0.450977 46003 
-0.204736 0.679253 0.450941 46003 
-0.204113 0.678879 0.450792 46003 
-0.20381 0.678143 0.450809 46003 
-0.203367 0.677517 0.450809 46003 
-0.202777 0.677022 0.45078 46003 
-0.202651 0.676139 0.450829 46003 
-0.202495 0.675288 0.450856 46003 
-0.202098 0.67468 0.450796 46003 
-0.201788 0.674007 0.450748 46003 
-0.201099 0.673745 0.450518 46003 
-0.200514 0.673298 0.45044 46003 
-0.199819 0.673059 0.45019 46003 
-0.199055 0.672955 0.449837 46003 
-0.198157 0.672887 0.449554 46003 
-0.197032 0.673154 0.449052 46003 
-0.196046 0.673732 0.448043 46003 
-0.194999 0.673786 0.447723 46003 
-0.193819 0.674252 0.447013 46003 
-0.192902 0.674251 0.446657 46003 
-0.192106 0.673916 0.446595 46003 
-0.191891 0.673135 0.446601 46003 
-0.191626 0.672281 0.446681 46003 
-0.191599 0.671336 0.446729 46003 
-0.191256 0.670401 0.446992 46003 
-0.190865 0.669638 0.447095 46003 
-0.190586 0.668981 0.446991 46003 
-0.19011 0.668644 0.44669 46003 
-0.189488 0.668323 0.446459 46003 
-0.18871 0.668033 0.446339 46003 
-0.187852 0.667896 0.446072 46003 
-0.186752 0.668424 0.445291 46003 
-0.185497 0.668811 0.444765 46003 
-0.183992 0.670178 0.443363 46003 
-0.183141 0.670349 0.442791 46003 
-0.18236 0.670054 0.44267 46003 
-0.181784 0.669765 0.442394 46003 
-0.181379 0.669145 0.442358 46003 
-0.180919 0.66875 0.442118 46003 
-0.180514 0.66813 0.442081 46003 
-0.179874 0.667804 0.441876 46003 
-0.179213 0.667457 0.441725 46003 
-0.178561 0.667185 0.44149 46003 
-0.177966 0.666726 0.441412 46003 
-0.177193 0.666678 0.441043 46003 
-0.176123 0.666802 0.440675 46003 
-0.175266 0.666802 0.440311 46003 
-0.174112 0.666966 0.439949 46003 
-0.173431 0.667169 0.439305 46003 
-0.172644 0.667059 0.439021 46003 
-0.17166 0.667362 0.438462 46003 
-0.170825 0.667626 0.437907 46003 
-0.169804 0.66782 0.4375 46003 
-0.168665 0.668115 0.437059 46003 
-0.167925 0.668346 0.436541 46003 
-0.166767 0.668684 0.436058 46003 
-0.165632 0.668967 0.435629 46003 
-0.164823 0.669365 0.435021 46003 
-0.163757 0.669776 0.434497 46003 
-0.162458 0.670275 0.433924 46003 
-0.161515 0.670323 0.43363 46003 
-0.16027 0.670555 0.433205 46003 
-0.159738 0.67042 0.432836 46003 
-0.154228 0.676458 0.429144 46003 
-0.153429 0.676137 0.429023 46003 
-0.152821 0.675657 0.428943 46003 
-0.152214 0.675177 0.428864 46003 
-0.151798 0.674539 0.428827 46003 
-0.151217 0.673994 0.428722 46003 
-0.15109 0.673198 0.428737 46003 
-0.151103 0.672288 0.42874 46003 
-0.150613 0.671634 0.428633 46003 
-0.150286 0.671003 0.428593 46003 
-0.149606 0.670533 0.428381 46003 
-0.149191 0.669896 0.428343 46003 
-0.14875 0.669375 0.428146 46003 
-0.148142 0.668894 0.428066 46003 
-0.147552 0.668525 0.427823 46003 
-0.146707 0.66814 0.42765 46003 
-0.146485 0.667347 0.427655 46003 
-0.146106 0.666639 0.427592 46003 
-0.145887 0.665874 0.427547 46003 
-0.150485 0.65998 0.430037 46003 
-0.150267 0.659193 0.430042 46003 
-0.150049 0.658406 0.430048 46003 
-0.149638 0.657775 0.430011 46003 
-0.148219 0.658094 0.429531 46003 
-0.147613 0.657616 0.429452 46003 
-0.14677 0.657497 0.429038 46003 
-0.14555 0.657796 0.428476 46003 
-0.144836 0.65756 0.42817 46003 
-0.141993 0.659196 0.427072 46003 
-0.141383 0.658713 0.426992 46003 
-0.140761 0.658292 0.426786 46003 
-0.140532 0.657616 0.426612 46003 
-0.140325 0.656892 0.426525 46003 
-0.140105 0.656103 0.42653 46003 
-0.139685 0.655503 0.426444 46003 
-0.139354 0.654853 0.426445 46003 
-0.138856 0.654283 0.426308 46003 
-0.13846 0.653693 0.426202 46003 
-0.13785 0.653209 0.426122 46003 
-0.137147 0.652832 0.425869 46003 
-0.136583 0.652395 0.425711 46003 
-0.136012 0.651939 0.425563 46003 
-0.135308 0.651682 0.425306 46003 
-0.134354 0.651384 0.425109 46003 
-0.133353 0.651279 0.424742 46003 
-0.132588 0.650994 0.424512 46003 
-0.131583 0.650808 0.424347 46003 
-0.13098 0.650555 0.424027 46003 
-0.130104 0.650255 0.423778 46003 
-0.129307 0.649951 0.423573 46003 
-0.128496 0.649612 0.42345 46003 
-0.127727 0.649325 0.4232 46003 
-0.12692 0.648998 0.42299 46003 
-0.126409 0.648374 0.422852 46003 
-0.126222 0.647596 0.422841 46003 
-0.126218 0.646658 0.422939 46003 
-0.126173 0.645748 0.422933 46003 
-0.12617 0.644825 0.422968 46003 
-0.126232 0.643905 0.423027 46003 
-0.125941 0.643125 0.422967 46003 
-0.125565 0.642505 0.422897 46003 
-0.125121 0.641876 0.422825 46003 
-0.124464 0.641387 0.422663 46003 
-0.123672 0.641043 0.422526 46003 
-0.122676 0.640871 0.422249 46003 
-0.121859 0.640526 0.421973 46003 
-0.120854 0.640329 0.421696 46003 
-0.119677 0.640274 0.421362 46003 
-0.118942 0.639919 0.421022 46003 
-0.118017 0.63972 0.420788 46003 
-0.117138 0.639355 0.420585 46003 
-0.116038 0.639283 0.420186 46003 
-0.114906 0.639221 0.419902 46003 
-0.113621 0.639137 0.419605 46003 
-0.112578 0.639063 0.41917 46003 
-0.11156 0.638857 0.419004 46003 
-0.110606 0.638646 0.418741 46003 
-0.109813 0.638225 0.4184 46003 
-0.108824 0.637975 0.41811 46003 
-0.108026 0.637592 0.417887 46003 
-0.107046 0.637347 0.417621 46003 
-0.106299 0.63693 0.417314 46003 
-0.10575 0.636422 0.417166 46003 
-0.104723 0.636154 0.416896 46003 
-0.104087 0.635589 0.416721 46003 
-0.103268 0.635196 0.41653 46003 
-0.102261 0.634924 0.41626 46003 
-0.102319 0.634044 0.416351 46003 
-0.0995272 0.634704 0.415515 46003 
-0.0991718 0.634083 0.415484 46003 
-0.105312 0.629456 0.416762 46003 
-0.105093 0.628666 0.416766 46003 
-0.10474 0.628018 0.416624 46003 
-0.104395 0.62735 0.416466 46003 
-0.104216 0.626506 0.41636 46003 
-0.103881 0.625862 0.416203 46003 
-0.103461 0.625217 0.416165 46003 
-0.103041 0.624571 0.416127 46003 
-0.212002 0.683732 0.452099 46003 
-0.211603 0.68312 0.452063 46003 
-0.211204 0.682507 0.452027 46003 
-0.210959 0.681897 0.451842 46003 
-0.210375 0.681454 0.451765 46003 
-0.209791 0.68101 0.451687 46003 
-0.208894 0.681009 0.451331 46003 
-0.208012 0.680959 0.451023 46003 
-0.207439 0.680505 0.450945 46003 
-0.206976 0.680048 0.450764 46003 
-0.20639 0.679603 0.450686 46003 
-0.205636 0.679383 0.450471 46003 
-0.205004 0.679074 0.450254 46003 
-0.204441 0.678606 0.450172 46003 
-0.204146 0.677834 0.450216 46003 
-0.203931 0.677054 0.450222 46003 
-0.203195 0.676706 0.450135 46003 
-0.203065 0.675781 0.450229 46003 
-0.202757 0.675055 0.450247 46003 
-0.202307 0.674448 0.450221 46003 
-0.202063 0.673699 0.450202 46003 
-0.201439 0.673412 0.44996 46003 
-0.201068 0.672695 0.450022 46003 
-0.200123 0.672948 0.449382 46003 
-0.19935 0.672666 0.449262 46003 
-0.198472 0.672564 0.449003 46003 
-0.197538 0.672742 0.448442 46003 
-0.196274 0.673546 0.447368 46003 
-0.19533 0.673567 0.447039 46003 
-0.194189 0.674084 0.446231 46003 
-0.193213 0.673976 0.446055 46003 
-0.192582 0.673605 0.445897 46003 
-0.192183 0.672903 0.445944 46003 
-0.192153 0.671741 0.44621 46003 
-0.192115 0.670678 0.446381 46003 
-0.191724 0.669914 0.446484 46003 
-0.19151 0.669135 0.44649 46003 
-0.191288 0.668281 0.44657 46003 
-0.190887 0.667666 0.446534 46003 
-0.190271 0.667455 0.446162 46003 
-0.189196 0.667645 0.445708 46003 
-0.188311 0.667558 0.445424 46003 
-0.187269 0.667812 0.444895 46003 
-0.186111 0.668058 0.444448 46003 
-0.183887 0.67033 0.442586 46003 
-0.183102 0.670232 0.442256 46003 
-0.182254 0.670205 0.441892 46003 
-0.181678 0.669916 0.441615 46003 
-0.181219 0.669455 0.441453 46003 
-0.180845 0.668855 0.441366 46003 
-0.180354 0.668408 0.441208 46003 
-0.180055 0.667795 0.441101 46003 
-0.179387 0.667383 0.441006 46003 
-0.178745 0.667128 0.44075 46003 
-0.17833 0.666675 0.44056 46003 
-0.177356 0.666537 0.440397 46003 
-0.176689 0.666376 0.440076 46003 
-0.175601 0.666606 0.439621 46003 
-0.174619 0.666547 0.439381 46003 
-0.174019 0.666794 0.438659 46003 
-0.17298 0.666863 0.438329 46003 
-0.171939 0.667039 0.437924 46003 
-0.170953 0.66742 0.437329 46003 
-0.169888 0.667809 0.436757 46003 
-0.168969 0.667867 0.436436 46003 
-0.168179 0.66843 0.435677 46003 
-0.167007 0.668441 0.435471 46003 
-0.166142 0.668754 0.434904 46003 
-0.165191 0.669035 0.43445 46003 
-0.164084 0.669416 0.433956 46003 
-0.16301 0.66978 0.433412 46003 
-0.162191 0.669883 0.433026 46003 
-0.1611 0.669989 0.432717 46003 
-0.160306 0.669674 0.432596 46003 
-0.159685 0.669355 0.432448 46003 
-0.159082 0.66888 0.432369 46003 
-0.153098 0.675488 0.428229 46003 
-0.152491 0.675009 0.42815 46003 
-0.1522 0.674332 0.428184 46003 
-0.151799 0.673731 0.428115 46003 
-0.151253 0.673153 0.428039 46003 
-0.151084 0.67238 0.428024 46003 
-0.150685 0.67177 0.427801 46003 
-0.150179 0.671149 0.427794 46003 
-0.149736 0.670615 0.427636 46003 
-0.149472 0.670026 0.427493 46003 
-0.148867 0.66946 0.427379 46003 
-0.148187 0.669058 0.427205 46003 
-0.147578 0.668576 0.427125 46003 
-0.146835 0.668188 0.426944 46003 
-0.146613 0.667395 0.426949 46003 
-0.146171 0.666697 0.426878 46003 
-0.146038 0.665942 0.426848 46003 
-0.150763 0.659814 0.429329 46003 
-0.150545 0.659027 0.429335 46003 
-0.150521 0.658086 0.429382 46003 
-0.150195 0.657414 0.429371 46003 
-0.149149 0.657364 0.429065 46003 
-0.148737 0.656732 0.429028 46003 
-0.147868 0.65651 0.428791 46003 
-0.145985 0.657369 0.427997 46003 
-0.145358 0.657225 0.427524 46003 
-0.142466 0.658878 0.426401 46003 
-0.141743 0.658574 0.426222 46003 
-0.141329 0.657938 0.426185 46003 
-0.140969 0.657349 0.426084 46003 
-0.14072 0.656638 0.425939 46003 
-0.140424 0.655934 0.42584 46003 
-0.140049 0.655325 0.425769 46003 
-0.139634 0.654689 0.425732 46003 
-0.139136 0.65412 0.425596 46003 
-0.13874 0.65353 0.42549 46003 
-0.138236 0.653053 0.425412 46003 
-0.1377 0.652585 0.425292 46003 
-0.137165 0.652192 0.425072 46003 
-0.136447 0.651754 0.424891 46003 
-0.135692 0.651464 0.424682 46003 
-0.134945 0.651175 0.424495 46003 
-0.133982 0.651041 0.424253 46003 
-0.133016 0.650824 0.423825 46003 
-0.132104 0.650671 0.423606 46003 
-0.131317 0.650377 0.423393 46003 
-0.130477 0.650074 0.423167 46003 
-0.129588 0.64979 0.422856 46003 
-0.128876 0.649473 0.422715 46003 
-0.128354 0.648995 0.422635 46003 
-0.127503 0.648683 0.42242 46003 
-0.127086 0.648043 0.422383 46003 
-0.126899 0.647265 0.422372 46003 
-0.126887 0.646353 0.422391 46003 
-0.126852 0.645432 0.422395 46003 
-0.126809 0.644518 0.422365 46003 
-0.126514 0.643745 0.422311 46003 
-0.126296 0.642958 0.422316 46003 
-0.125933 0.642362 0.422195 46003 
-0.125319 0.641872 0.422115 46003 
-0.124662 0.641383 0.421953 46003 
-0.12385 0.64104 0.42183 46003 
-0.122893 0.640862 0.421559 46003 
-0.121814 0.640664 0.421255 46003 
-0.12085 0.640473 0.420851 46003 
-0.1197 0.640419 0.420547 46003 
-0.118863 0.640066 0.420229 46003 
-0.117903 0.639857 0.419983 46003 
-0.116905 0.639648 0.419765 46003 
-0.11604 0.639446 0.419373 46003 
-0.114897 0.639389 0.419121 46003 
-0.11375 0.639345 0.418855 46003 
-0.112568 0.639239 0.418429 46003 
-0.111552 0.639011 0.418181 46003 
-0.110799 0.638676 0.418016 46003 
-0.109807 0.638402 0.417632 46003 
-0.108995 0.638027 0.417436 46003 
-0.108237 0.637658 0.417234 46003 
-0.10723 0.637372 0.416867 46003 
-0.106638 0.636837 0.416685 46003 
-0.106089 0.63633 0.416537 46003 
-0.105265 0.635907 0.416248 46003 
-0.104671 0.635375 0.416106 46003 
-0.104295 0.634719 0.41604 46003 
-0.103488 0.634339 0.415853 46003 
-0.103668 0.633257 0.415944 46003 
-0.105524 0.631276 0.416217 46003 
-0.105774 0.630121 0.416114 46003 
-0.105598 0.629302 0.416038 46003 
-0.105379 0.628512 0.416043 46003 
-0.1053 0.627752 0.415876 46003 
-0.104879 0.627106 0.415838 46003 
-0.104567 0.62638 0.415575 46003 
-0.104168 0.625709 0.41548 46003 
-0.103795 0.625092 0.415402 46003 
-0.103173 0.624589 0.415321 46003 
-0.102955 0.623801 0.415326 46003 
-0.102534 0.623155 0.415288 46003 
-0.212428 0.683396 0.451468 46003 
-0.212029 0.682784 0.451432 46003 
-0.21163 0.682172 0.451396 46003 
-0.211231 0.68156 0.45136 46003 
-0.210512 0.681357 0.451098 46003 
-0.209973 0.680962 0.450914 46003 
-0.209572 0.680339 0.450898 46003 
-0.208563 0.680326 0.450659 46003 
-0.208003 0.680021 0.450373 46003 
-0.207243 0.679869 0.450078 46003 
-0.206657 0.679424 0.45 46003 
-0.205903 0.679204 0.449785 46003 
-0.205625 0.678402 0.44987 46003 
-0.204854 0.678151 0.449684 46003 
-0.204639 0.67737 0.449691 46003 
-0.204424 0.67659 0.449697 46003 
-0.203657 0.676265 0.449595 46003 
-0.203548 0.675331 0.449684 46003 
-0.203241 0.674606 0.449701 46003 
-0.202716 0.674167 0.449527 46003 
-0.202561 0.673255 0.449634 46003 
-0.202161 0.672643 0.449597 46003 
-0.201389 0.672362 0.449477 46003 
-0.200394 0.672386 0.449172 46003 
-0.199692 0.672408 0.448606 46003 
-0.198745 0.672566 0.448088 46003 
-0.197798 0.672646 0.447661 46003 
-0.19659 0.673224 0.446815 46003 
-0.195496 0.673423 0.446381 46003 
-0.194605 0.673598 0.445794 46003 
-0.193352 0.673767 0.445507 46003 
-0.192727 0.673456 0.445278 46003 
-0.192265 0.672891 0.445212 46003 
-0.192878 0.671028 0.445794 46003 
-0.192766 0.670079 0.445877 46003 
-0.192388 0.669194 0.446099 46003 
-0.192175 0.668415 0.446105 46003 
-0.191994 0.667554 0.446167 46003 
-0.19147 0.667073 0.446044 46003 
-0.1907 0.666902 0.445747 46003 
-0.189722 0.667028 0.44531 46003 
-0.188991 0.66684 0.44504 46003 
-0.187803 0.667093 0.444614 46003 
-0.186929 0.667111 0.444212 46003 
-0.184056 0.670464 0.44164 46003 
-0.183248 0.670415 0.441278 46003 
-0.182732 0.670016 0.441086 46003 
-0.182026 0.669826 0.440797 46003 
-0.181694 0.66918 0.440748 46003 
-0.181239 0.668619 0.440682 46003 
-0.180499 0.668406 0.440431 46003 
-0.18025 0.667733 0.440354 46003 
-0.179845 0.667113 0.440318 46003 
-0.179071 0.667058 0.43994 46003 
-0.178474 0.666634 0.439825 46003 
-0.17769 0.666335 0.439704 46003 
-0.177054 0.666056 0.439485 46003 
-0.175935 0.666404 0.438927 46003 
-0.175137 0.666332 0.438608 46003 
-0.174149 0.666477 0.43819 46003 
-0.173356 0.666746 0.437554 46003 
-0.172298 0.666827 0.437238 46003 
-0.171399 0.667239 0.436592 46003 
-0.170217 0.66754 0.436144 46003 
-0.169323 0.667885 0.435586 46003 
-0.168452 0.667974 0.435212 46003 
-0.167282 0.66827 0.434769 46003 
-0.166582 0.668157 0.434519 46003 
-0.165882 0.668628 0.433852 46003 
-0.164661 0.668874 0.433448 46003 
-0.163733 0.669175 0.432933 46003 
-0.162736 0.669347 0.432549 46003 
-0.161646 0.669615 0.432079 46003 
-0.160947 0.669343 0.431905 46003 
-0.159961 0.669186 0.431741 46003 
-0.159358 0.668711 0.431662 46003 
-0.153498 0.67522 0.427649 46003 
-0.152892 0.674801 0.427507 46003 
-0.152477 0.674164 0.42747 46003 
-0.152075 0.673563 0.427401 46003 
-0.151511 0.673123 0.427278 46003 
-0.151194 0.672501 0.427232 46003 
-0.150944 0.671799 0.42714 46003 
-0.150554 0.67119 0.427069 46003 
-0.149989 0.670708 0.42683 46003 
-0.149621 0.670123 0.42673 46003 
-0.149089 0.669528 0.426638 46003 
-0.148316 0.66914 0.426459 46003 
-0.147849 0.668665 0.42637 46003 
-0.147232 0.668214 0.426249 46003 
-0.146992 0.667474 0.426199 46003 
-0.146426 0.666825 0.426072 46003 
-0.146178 0.666069 0.426043 46003 
-0.151166 0.659549 0.428713 46003 
-0.150948 0.658762 0.428718 46003 
-0.150924 0.657821 0.428767 46003 
-0.150667 0.657094 0.428706 46003 
-0.149868 0.656772 0.428584 46003 
-0.14965 0.655986 0.42859 46003 
-0.148992 0.655627 0.428368 46003 
-0.146095 0.657408 0.427277 46003 
-0.145487 0.657251 0.426861 46003 
-0.143332 0.658202 0.426082 46003 
-0.142349 0.658198 0.425639 46003 
-0.14174 0.657715 0.425559 46003 
-0.1414 0.657212 0.425301 46003 
-0.14118 0.656423 0.425306 46003 
-0.140905 0.655755 0.425154 46003 
-0.140491 0.655119 0.425117 46003 
-0.140077 0.654484 0.42508 46003 
-0.13974 0.653872 0.425019 46003 
-0.139289 0.653331 0.424839 46003 
-0.138652 0.652892 0.424699 46003 
-0.138042 0.652408 0.424619 46003 
-0.137446 0.652029 0.424359 46003 
-0.13664 0.651696 0.424236 46003 
-0.135836 0.651499 0.423862 46003 
-0.135029 0.651164 0.423739 46003 
-0.134066 0.65103 0.423496 46003 
-0.133498 0.650594 0.423308 46003 
-0.1325 0.650482 0.422979 46003 
-0.131599 0.650215 0.422677 46003 
-0.13084 0.649884 0.42253 46003 
-0.13006 0.649632 0.422227 46003 
-0.129538 0.649154 0.422147 46003 
-0.128833 0.648684 0.421961 46003 
-0.127982 0.648373 0.421746 46003 
-0.127598 0.647745 0.421692 46003 
-0.127463 0.646966 0.421736 46003 
-0.127169 0.646193 0.421675 46003 
-0.127134 0.645272 0.421678 46003 
-0.127148 0.64435 0.421719 46003 
-0.1269 0.643595 0.421621 46003 
-0.126558 0.642972 0.421577 46003 
-0.126104 0.642343 0.421495 46003 
-0.125403 0.641861 0.421356 46003 
-0.124841 0.641372 0.421241 46003 
-0.123828 0.641187 0.420996 46003 
-0.122918 0.641015 0.420816 46003 
-0.121923 0.640826 0.420544 46003 
-0.120919 0.640661 0.420188 46003 
-0.119827 0.640612 0.419781 46003 
-0.119064 0.64027 0.419548 46003 
-0.118025 0.640049 0.419187 46003 
-0.116868 0.639994 0.418879 46003 
-0.115831 0.639766 0.41859 46003 
-0.114585 0.639671 0.418271 46003 
-0.113494 0.639616 0.417911 46003 
-0.112319 0.639562 0.417621 46003 
-0.111504 0.639165 0.41733 46003 
-0.110732 0.638789 0.417107 46003 
-0.109756 0.638572 0.416847 46003 
-0.109017 0.63825 0.416721 46003 
-0.108165 0.637811 0.4164 46003 
-0.107356 0.637429 0.416196 46003 
-0.106724 0.636827 0.415916 46003 
-0.106175 0.636319 0.415768 46003 
-0.10558 0.635797 0.415604 46003 
-0.105302 0.635197 0.415505 46003 
-0.105034 0.634317 0.415424 46003 
-0.104412 0.633814 0.415343 46003 
-0.104663 0.632732 0.415343 46003 
-0.106011 0.630976 0.415535 46003 
-0.106322 0.629878 0.415433 46003 
-0.106304 0.628945 0.415481 46003 
-0.105956 0.628331 0.415376 46003 
-0.105787 0.627454 0.415196 46003 
-0.105367 0.626809 0.415158 46003 
-0.104814 0.626282 0.414962 46003 
-0.104521 0.625622 0.414745 46003 
-0.104101 0.624976 0.414707 46003 
-0.10346 0.624436 0.414597 46003 
-0.10315 0.623877 0.414483 46003 
-0.10284 0.623287 0.41433 46003 
-0.211928 0.681895 0.450811 46003 
-0.211529 0.681283 0.450775 46003 
-0.210994 0.680911 0.450554 46003 
-0.210531 0.680369 0.45049 46003 
-0.210004 0.679953 0.450324 46003 
-0.209235 0.679678 0.450203 46003 
-0.208474 0.67953 0.4499 46003 
-0.20789 0.679085 0.449822 46003 
-0.207014 0.679099 0.449417 46003 
-0.206398 0.67872 0.449278 46003 
-0.206066 0.677977 0.449335 46003 
-0.205577 0.677409 0.44931 46003 
-0.205138 0.676878 0.449194 46003 
-0.204923 0.676098 0.4492 46003 
-0.204296 0.675533 0.44926 46003 
-0.204 0.674873 0.449178 46003 
-0.203787 0.674093 0.449185 46003 
-0.203567 0.673248 0.449263 46003 
-0.202921 0.672909 0.449075 46003 
-0.202243 0.672631 0.448871 46003 
-0.201727 0.672156 0.448757 46003 
-0.200954 0.671875 0.448637 46003 
-0.200008 0.672128 0.447995 46003 
-0.199239 0.672025 0.447646 46003 
-0.197989 0.672566 0.446899 46003 
-0.196885 0.67311 0.446044 46003 
-0.195724 0.673494 0.445433 46003 
-0.194501 0.673751 0.445019 46003 
-0.193867 0.673495 0.444751 46003 
-0.192964 0.673313 0.444591 46003 
-0.192565 0.672415 0.444855 46003 
-0.193532 0.670117 0.445621 46003 
-0.193534 0.669088 0.445718 46003 
-0.193193 0.668267 0.445844 46003 
-0.19298 0.667488 0.445851 46003 
-0.192654 0.66679 0.445822 46003 
-0.192053 0.666478 0.44558 46003 
-0.191228 0.666363 0.445279 46003 
-0.190304 0.66634 0.444949 46003 
-0.189479 0.666372 0.444502 46003 
-0.188324 0.666408 0.444295 46003 
-0.187512 0.666335 0.443954 46003 
-0.184197 0.67037 0.440961 46003 
-0.183434 0.670277 0.44061 46003 
-0.183023 0.669975 0.440253 46003 
-0.18243 0.669517 0.440174 46003 
-0.181588 0.66933 0.439968 46003 
-0.181289 0.668717 0.439861 46003 
-0.180798 0.66827 0.439703 46003 
-0.180144 0.667883 0.439574 46003 
-0.179867 0.667171 0.439546 46003 
-0.17918 0.666961 0.439281 46003 
-0.178368 0.666784 0.439045 46003 
-0.177921 0.666345 0.438869 46003 
-0.177136 0.666045 0.438747 46003 
-0.176166 0.666101 0.438391 46003 
-0.17522 0.666321 0.437868 46003 
-0.1745 0.666439 0.437342 46003 
-0.173776 0.666372 0.436983 46003 
-0.172572 0.666656 0.436539 46003 
-0.171578 0.666836 0.436121 46003 
-0.170675 0.667142 0.435566 46003 
-0.169591 0.667411 0.43513 46003 
-0.168726 0.667803 0.43451 46003 
-0.168042 0.66792 0.434108 46003 
-0.167321 0.667765 0.43389 46003 
-0.166403 0.668324 0.43321 46003 
-0.165229 0.668331 0.433003 46003 
-0.164351 0.668585 0.432468 46003 
-0.16323 0.668923 0.431969 46003 
-0.162521 0.668822 0.431718 46003 
-0.161443 0.668826 0.43142 46003 
-0.160428 0.668858 0.431076 46003 
-0.159826 0.668385 0.430997 46003 
-0.153936 0.674998 0.427038 46003 
-0.153521 0.674361 0.427 46003 
-0.152928 0.673917 0.426889 46003 
-0.152556 0.67332 0.426808 46003 
-0.152063 0.672815 0.426777 46003 
-0.151454 0.672427 0.426573 46003 
-0.151203 0.671704 0.426489 46003 
-0.150639 0.671179 0.426312 46003 
-0.150134 0.670724 0.426209 46003 
-0.149513 0.670268 0.42593 46003 
-0.149097 0.669631 0.425893 46003 
-0.148514 0.669199 0.42575 46003 
-0.147942 0.668785 0.425588 46003 
-0.147251 0.668358 0.425451 46003 
-0.14701 0.667618 0.425401 46003 
-0.146788 0.666825 0.425407 46003 
-0.146561 0.666079 0.425385 46003 
-0.151443 0.659383 0.428005 46003 
-0.151225 0.658596 0.428011 46003 
-0.151008 0.65781 0.428017 46003 
-0.151074 0.656844 0.428064 46003 
-0.150275 0.656522 0.427941 46003 
-0.149734 0.655975 0.42784 46003 
-0.14934 0.65552 0.427662 46003 
-0.146489 0.657319 0.426572 46003 
-0.145428 0.657439 0.425965 46003 
-0.143795 0.658048 0.425314 46003 
-0.142779 0.658002 0.424968 46003 
-0.142179 0.657556 0.424816 46003 
-0.141809 0.656973 0.424686 46003 
-0.141566 0.656263 0.424591 46003 
-0.141326 0.655546 0.4245 46003 
-0.14077 0.654956 0.424405 46003 
-0.140434 0.654344 0.424344 46003 
-0.140158 0.653705 0.424325 46003 
-0.139714 0.653131 0.424197 46003 
-0.13906 0.652678 0.424069 46003 
-0.138368 0.652293 0.423829 46003 
-0.137726 0.651867 0.423647 46003 
-0.137023 0.651566 0.42348 46003 
-0.136225 0.651289 0.42325 46003 
-0.13521 0.651155 0.423004 46003 
-0.134391 0.650859 0.422798 46003 
-0.133872 0.650465 0.42254 46003 
-0.132867 0.65028 0.422374 46003 
-0.132099 0.650025 0.422109 46003 
-0.131293 0.649738 0.421874 46003 
-0.130499 0.649472 0.421584 46003 
-0.129923 0.648991 0.421489 46003 
-0.129309 0.648502 0.421409 46003 
-0.128652 0.648029 0.421276 46003 
-0.128161 0.647446 0.421057 46003 
-0.127745 0.646806 0.421019 46003 
-0.127525 0.646017 0.421025 46003 
-0.127452 0.645127 0.420955 46003 
-0.127318 0.644355 0.420974 46003 
-0.127059 0.6436 0.420856 46003 
-0.126643 0.642961 0.420819 46003 
-0.126227 0.642322 0.420781 46003 
-0.125607 0.64187 0.420605 46003 
-0.124873 0.641537 0.420456 46003 
-0.123815 0.641348 0.420179 46003 
-0.122887 0.641187 0.419963 46003 
-0.121961 0.641001 0.419738 46003 
-0.120995 0.640828 0.419408 46003 
-0.119786 0.64077 0.418978 46003 
-0.118794 0.640569 0.418609 46003 
-0.117713 0.640333 0.418338 46003 
-0.116556 0.640277 0.418029 46003 
-0.115582 0.640079 0.417768 46003 
-0.114419 0.640001 0.417405 46003 
-0.113223 0.639904 0.41698 46003 
-0.112277 0.639708 0.416764 46003 
-0.11146 0.639332 0.416553 46003 
-0.110657 0.638972 0.416358 46003 
-0.109723 0.63874 0.416035 46003 
-0.108903 0.638385 0.41591 46003 
-0.108126 0.637977 0.415589 46003 
-0.107506 0.63746 0.415473 46003 
-0.106945 0.636915 0.415261 46003 
-0.106344 0.636333 0.414975 46003 
-0.105962 0.635702 0.414897 46003 
-0.105588 0.635042 0.41478 46003 
-0.105567 0.634105 0.414829 46003 
-0.105146 0.633457 0.414791 46003 
-0.105427 0.632313 0.414648 46003 
-0.10696 0.630445 0.414941 46003 
-0.107093 0.629577 0.414836 46003 
-0.107124 0.628626 0.414802 46003 
-0.106772 0.627978 0.414659 46003 
-0.106352 0.627333 0.414621 46003 
-0.105994 0.626571 0.414372 46003 
-0.105442 0.626036 0.414166 46003 
-0.105023 0.625391 0.414128 46003 
-0.104388 0.624823 0.413984 46003 
-0.103858 0.624369 0.413798 46003 
-0.103346 0.623922 0.413601 46003 
-0.102926 0.623277 0.413563 46003 
-0.213199 0.682692 0.450319 46003 
-0.212801 0.68208 0.450283 46003 
-0.212218 0.681637 0.450205 46003 
-0.211973 0.68084 0.450262 46003 
-0.211686 0.680171 0.450198 46003 
-0.211045 0.679891 0.449962 46003 
-0.210271 0.679773 0.449639 46003 
-0.209686 0.67933 0.449561 46003 
-0.208741 0.67935 0.449215 46003 
-0.208253 0.67876 0.449231 46003 
-0.20764 0.678375 0.449097 46003 
-0.20687 0.678229 0.448804 46003 
-0.206433 0.677618 0.448787 46003 
-0.20603 0.677063 0.448667 46003 
-0.205584 0.676473 0.44863 46003 
-0.205343 0.675621 0.448737 46003 
-0.204564 0.675355 0.448575 46003 
-0.204536 0.674409 0.448624 46003 
-0.204048 0.673849 0.448572 46003 
-0.203804 0.673099 0.448554 46003 
-0.203189 0.672731 0.448391 46003 
-0.202603 0.672285 0.448313 46003 
-0.201808 0.672145 0.44803 46003 
-0.201036 0.671864 0.447909 46003 
-0.200211 0.671952 0.44736 46003 
-0.199487 0.671965 0.446829 46003 
-0.198483 0.672128 0.446352 46003 
-0.197048 0.67304 0.445327 46003 
-0.195778 0.673391 0.444847 46003 
-0.194738 0.673703 0.444225 46003 
-0.193763 0.673648 0.443976 46003 
-0.193173 0.673196 0.443898 46003 
-0.192957 0.672414 0.443904 46003 
-0.194203 0.669528 0.445066 46003 
-0.194051 0.668542 0.445236 46003 
-0.193838 0.667763 0.445243 46003 
-0.193405 0.667148 0.445215 46003 
-0.193112 0.666452 0.445178 46003 
-0.19258 0.665938 0.445109 46003 
-0.19174 0.665788 0.444875 46003 
-0.190796 0.665872 0.444428 46003 
-0.189809 0.665973 0.444013 46003 
-0.18884 0.666077 0.443589 46003 
-0.188203 0.665681 0.443459 46003 
-0.184596 0.67014 0.440243 46003 
-0.183873 0.670169 0.439742 46003 
-0.182918 0.670126 0.439473 46003 
-0.182324 0.669668 0.439394 46003 
-0.181651 0.669369 0.439204 46003 
-0.181183 0.668867 0.439081 46003 
-0.180691 0.66842 0.438923 46003 
-0.180414 0.667708 0.438895 46003 
-0.179929 0.66719 0.438803 46003 
-0.179258 0.66697 0.438528 46003 
-0.178853 0.666349 0.438491 46003 
-0.17819 0.666055 0.438296 46003 
-0.177219 0.666034 0.438009 46003 
-0.176601 0.665878 0.437659 46003 
-0.175815 0.665769 0.437373 46003 
-0.17479 0.666023 0.43686 46003 
-0.173992 0.666006 0.436484 46003 
-0.173233 0.665895 0.436194 46003 
-0.172112 0.666455 0.435488 46003 
-0.171271 0.666626 0.435026 46003 
-0.170241 0.666853 0.434595 46003 
-0.169425 0.667055 0.434156 46003 
-0.168501 0.667522 0.433528 46003 
-0.167595 0.667595 0.433187 46003 
-0.166836 0.667517 0.432925 46003 
-0.165695 0.668002 0.432342 46003 
-0.164918 0.667921 0.432082 46003 
-0.163907 0.668345 0.431504 46003 
-0.163069 0.668282 0.43123 46003 
-0.162002 0.668339 0.43089 46003 
-0.161017 0.668183 0.430724 46003 
-0.160414 0.66771 0.430644 46003 
-0.160018 0.667659 0.430211 46003 
-0.154121 0.673962 0.426442 46003 
-0.153514 0.673482 0.426362 46003 
-0.153065 0.673018 0.426288 46003 
-0.15234 0.672647 0.426064 46003 
-0.151774 0.67221 0.425937 46003 
-0.151288 0.671693 0.425732 46003 
-0.150827 0.671194 0.425533 46003 
-0.150219 0.670713 0.425453 46003 
-0.149559 0.670317 0.425259 46003 
-0.149128 0.669727 0.42516 46003 
-0.148443 0.669412 0.424868 46003 
-0.147834 0.66893 0.424788 46003 
-0.147314 0.668485 0.424672 46003 
-0.146946 0.667757 0.424613 46003 
-0.146674 0.667016 0.424579 46003 
-0.146452 0.666223 0.424585 46003 
-0.151617 0.659346 0.427253 46003 
-0.151399 0.65856 0.42726 46003 
-0.150988 0.657928 0.427223 46003 
-0.150964 0.656988 0.427271 46003 
-0.150326 0.656672 0.427086 46003 
-0.149721 0.656195 0.427006 46003 
-0.148842 0.655971 0.426783 46003 
-0.146768 0.657154 0.425862 46003 
-0.145875 0.657235 0.425426 46003 
-0.144125 0.657941 0.424666 46003 
-0.143215 0.657929 0.424267 46003 
-0.142571 0.657541 0.424036 46003 
-0.142185 0.656921 0.423984 46003 
-0.14178 0.656177 0.423933 46003 
-0.141484 0.65547 0.423841 46003 
